ply
format ascii 1.0
element vertex 721
comment vertices
property float x
property float y
property float z
end_header
-0.00726036634296178818 0.0883721411228179932 0.0782493725419044495
-0.00683950912207365036 0.088360130786895752 0.0785190686583518982
-0.00641865143552422523 0.0883481130003929138 0.0787887647747993469
-0.00606213696300983429 0.0883452668786048889 0.079159274697303772
-0.00570573378354310989 0.0883424133062362671 0.0795299559831619263
-0.00528487609699368477 0.088330395519733429 0.0797996446490287781
-0.00492836209014058113 0.0883275493979454041 0.0801701620221138
-0.00444316025823354721 0.0883063599467277527 0.0803390368819236755
-0.00395784806460142136 0.0882851853966712952 0.0805077403783798218
-0.00347264623269438744 0.0882640033960342407 0.0806766152381896973
-0.00298739201389253139 0.0882427170872688293 0.0808454006910324097
-0.00263093132525682449 0.0882399752736091614 0.0812160000205039978
-0.00233887182548642159 0.0882462859153747559 0.0816875025629997253
-0.00198235781863331795 0.088243439793586731 0.0820580124855041504
-0.00162589724641293287 0.0882406905293464661 0.0824286118149757385
-0.00120503944344818592 0.0882286801934242249 0.0826983004808425903
-0.000784181582275778055 0.0882166624069213867 0.0829679965972900391
-0.000363323750207200646 0.0882046446204185486 0.0832376852631568909
0.000121931414469145238 0.0881833583116531372 0.0834064781665802002
0.000542788882739841938 0.0881713405251502991 0.083676166832447052
0.000963646743912249804 0.0881593227386474609 0.0839458629488945007
0.00138450460508465767 0.0881473124027252197 0.0842155516147613525
0.00180536240804940462 0.0881352946162223816 0.0844852477312088013
0.00229056412354111671 0.0881141126155853271 0.0846541225910186768
0.00271142157725989819 0.088102094829082489 0.0849238187074661255
0.00319673400372266769 0.0880809202790260315 0.0850925222039222717
0.00361759169027209282 0.0880689024925231934 0.0853622108697891235
0.00403844937682151794 0.0880568847060203552 0.0856319069862365723
0.00445930752903223038 0.088044874370098114 0.0859015956521034241
0.00494450889527797699 0.0880236923694610596 0.0860704779624938965
0.00536536658182740211 0.0880116745829582214 0.0863401666283607483
0.00578622426837682724 0.0879996567964553833 0.086609862744808197
0.00620708242058753967 0.0879876390099525452 0.0868795514106750488
0.0066279401071369648 0.087975628674030304 0.0871492475271224976
0.00704879779368638992 0.0879636108875274658 0.0874189436435699463
0.00746965548023581505 0.0879515931010246277 0.0876886323094367981
0.00795491039752960205 0.0879303067922592163 0.0878574177622795105
0.00837576854974031448 0.0879182890057563782 0.0881271138787269592
0.00873222853988409042 0.0879155471920967102 0.0884977132081985474
0.00915308669209480286 0.0879035294055938721 0.0887674018740653992
0.00963834207504987717 0.0878822430968284607 0.0889361947774887085
0.010059199295938015 0.0878702253103256226 0.0892058834433555603
0.0104800574481487274 0.0878582149744033813 0.089475579559803009
0.0110297128558158875 0.0878278613090515137 0.089543461799621582
0.0114505710080265999 0.0878158435225486755 0.0898131579160690308
0.011935829184949398 0.087794668972492218 0.0899819433689117432
0.0124210817739367485 0.0877733826637268066 0.0901507362723350525
0.0129063399508595467 0.0877521932125091553 0.0903195217251777649
0.013391595333814621 0.0877310112118721008 0.0904883146286010742
0.0138768535107374191 0.0877098366618156433 0.0906571000814437866
0.0144265070557594299 0.0876793786883354187 0.0907249897718429565
0.0149117652326822281 0.0876581966876983643 0.0908937752246856689
0.0154614206403493881 0.0876278504729270935 0.0909616649150848389
0.0159466750919818878 0.0876065641641616821 0.0911304503679275513
0.0164963304996490479 0.0875762179493904114 0.0911983400583267212
0.0170459318906068802 0.0875457674264907837 0.0912663042545318604
0.0175955872982740402 0.0875154212117195129 0.0913341939449310303
0.0181452389806509018 0.0874849632382392883 0.0914020761847496033
0.0186948962509632111 0.0874546170234680176 0.0914699658751487732
0.019308948889374733 0.0874149948358535767 0.0914369449019432068
0.019987400621175766 0.0873662084341049194 0.091303020715713501
0.0207302533090114594 0.0873082578182220459 0.0910681933164596558
0.0213442519307136536 0.0872686430811882019 0.0910352617502212524
0.0218939073383808136 0.0872382968664169312 0.0911031439900398254
0.0224435646086931229 0.0872079432010650635 0.0911710336804389954
0.0230576172471046448 0.0871683284640312195 0.091138012707233429
0.0237360689789056778 0.0871195420622825623 0.0910040885210037231
0.0243501216173171997 0.0870799273252487183 0.0909710675477981567
0.0250285733491182327 0.087031140923500061 0.0908371508121490479
0.0255781747400760651 0.0870007872581481934 0.0909051224589347839
0.0260634869337081909 0.0869796052575111389 0.0910738259553909302
0.0264843441545963287 0.0869675874710083008 0.091343514621257782
0.0269052032381296158 0.0869555771350860596 0.0916132107377052307
0.0273904018104076385 0.0869342908263206482 0.0917820855975151062
0.0278112590312957764 0.0869222730398178101 0.092051774263381958
0.0282965172082185745 0.0869010984897613525 0.0922205671668052673
0.0288461726158857346 0.0868707448244094849 0.0922884494066238403
0.0293314289301633835 0.0868494585156440735 0.0924572423100471497
0.0298166833817958832 0.086828276515007019 0.0926260277628898621
0.0303663406521081924 0.0867979303002357483 0.092693917453289032
0.0308515951037406921 0.08677663654088974 0.0928627029061317444
0.0314012505114078522 0.0867462977766990662 0.0929305925965309143
0.0319588333368301392 0.0867115706205368042 0.0929859131574630737
0.03258485347032547 0.0866655036807060242 0.0929339304566383362
0.033142436295747757 0.0866308808326721191 0.0929892510175704956
0.0337684601545333862 0.0865848138928413391 0.0929372683167457581
0.0343944281339645386 0.0865387320518493652 0.0928853675723075867
0.035157177597284317 0.0864700600504875183 0.0926190093159675598
0.035919923335313797 0.0864012837409973145 0.0923526585102081299
0.036682669073343277 0.0863325074315071106 0.0920863077044487
0.0374453626573085785 0.0862638279795646667 0.0918200388550758362
0.0380713827908039093 0.0862177610397338867 0.0917680487036705017
0.0386973544955253601 0.0861716866493225098 0.0917161479592323303
0.0391866043210029602 0.0861484184861183167 0.0918786153197288513
0.039607461541891098 0.0861364006996154785 0.0921483114361763
0.0401650406420230865 0.0861016884446144104 0.0922036319971084595
0.0405859015882015228 0.0860896706581115723 0.0924733281135559082
0.041075143963098526 0.0860662981867790222 0.0926357954740524292
0.0416327789425849915 0.0860315784811973572 0.0926910340785980225
0.0422587506473064423 0.0859855040907859802 0.0926391333341598511
0.0430214963853359222 0.0859168320894241333 0.0923727825284004211
0.0437842421233654022 0.0858480557799339294 0.0921064242720603943
0.0445469915866851807 0.0857793837785720825 0.0918400734663009644
0.0453096814453601837 0.0857106074690818787 0.0915738046169281006
0.046140819787979126 0.0856305733323097229 0.0912002250552177429
0.0469719506800174713 0.0855504423379898071 0.0908266454935073853
0.0478030331432819366 0.0854704156517982483 0.0904531478881835938
0.0486341677606105804 0.0853902921080589294 0.0900795683264732361
0.0494652502238750458 0.0853102579712867737 0.0897060707211494446
0.050091274082660675 0.0852641910314559937 0.089654088020324707
0.050854019820690155 0.0851955115795135498 0.0893877372145652771
0.0516167692840099335 0.0851267352700233459 0.0891213789582252502
0.0523111224174499512 0.085069313645362854 0.0889622494578361511
0.0532105937600135803 0.0849779322743415833 0.0884815305471420288
0.0540417321026325226 0.0848979055881500244 0.0881079509854316711
0.0550095885992050171 0.0847950726747512817 0.0875200033187866211
0.0561825558543205261 0.0846582800149917603 0.0866104587912559509
0.0570820830762386322 0.0845668986439704895 0.0861296579241752625
0.0576396659016609192 0.0845321863889694214 0.0861849784851074219
0.0586075223982334137 0.0844294503331184387 0.0855970308184623718
0.0597805455327033997 0.0842926576733589172 0.0846874043345451355
0.0609535165131092072 0.0841558650135993958 0.0837778598070144653
0.0618530400097370148 0.084064386785030365 0.0832970589399337769
0.0630943998694419861 0.0839162468910217285 0.082280285656452179
0.0707053542137145996 0.0827692523598670959 0.0722062066197395325
-0.0477350838482379913 0.0876675769686698914 0.00928444229066371918
-0.0476561188697814941 0.0877121239900588989 0.0100901825353503227
-0.0486029461026191711 0.0879261568188667297 0.0125042283907532692
-0.0484556518495082855 0.0879593491554260254 0.0132028227671980858
-0.0482399091124534607 0.0879811868071556091 0.0137941092252731323
-0.0490499585866928101 0.088172614574432373 0.0159937050193548203
-0.0489026568830013275 0.0882058069109916687 0.0166923012584447861
-0.0490288622677326202 0.0882842093706130981 0.0178197193890810013
-0.0492918454110622406 0.0883852168917655945 0.0191615894436836243
-0.0493496619164943695 0.088452264666557312 0.020181780681014061
-0.0493390932679176331 0.0885080620646476746 0.0210947431623935699
-0.0493285730481147766 0.0885638594627380371 0.0220077931880950928
-0.0492496080696582794 0.0886084064841270447 0.0228135325014591217
-0.0491706989705562592 0.0886528566479682922 0.023619355633854866
-0.0491601228713989258 0.0887086540460586548 0.0245323199778795242
-0.0490812100470066071 0.0887532010674476624 0.0253381431102752686
-0.0490022487938404083 0.0887976363301277161 0.0261438861489295959
-0.0489916801452636719 0.0888534411787986755 0.0270568467676639557
-0.0488443821668624878 0.0888866335153579712 0.0277554430067539215
-0.0486970804631710052 0.0889198258519172668 0.0284540429711341858
-0.0484813377261161804 0.0889416635036468506 0.0290453284978866577
-0.0483340397477149963 0.0889748632907867432 0.029743928462266922
-0.048118293285369873 0.0889968052506446838 0.0303352139890193939
-0.0479026064276695251 0.0890186429023742676 0.0309265870600938797
-0.047618526965379715 0.0890292301774024963 0.0314107313752174377
-0.0474028401076793671 0.089051172137260437 0.0320020988583564758
-0.0471871010959148407 0.0890730097889900208 0.0325933881103992462
-0.0469030179083347321 0.0890835970640182495 0.0330775342881679535
-0.0466873310506343842 0.0891055464744567871 0.03366890549659729
-0.046403195708990097 0.0891161337494850159 0.0341529697179794312
-0.0461191162467002869 0.0891267210245132446 0.03463711217045784
-0.045903429388999939 0.0891485661268234253 0.0352284833788871765
-0.0455509647727012634 0.0891479030251502991 0.0356054008007049561
-0.0452668853104114532 0.0891584903001785278 0.0360895432531833649
-0.0449827499687671661 0.0891690775752067566 0.036573607474565506
-0.044698670506477356 0.0891796648502349854 0.0370577536523342133
-0.0444829836487770081 0.0892015025019645691 0.0376491248607635498
-0.0442672371864318848 0.0892234444618225098 0.0382404141128063202
-0.0440515503287315369 0.0892452895641326904 0.0388317815959453583
-0.0436990857124328613 0.0892446264624595642 0.0392086990177631378
-0.0434150062501430511 0.089255213737487793 0.0396928451955318451
-0.0431992635130882263 0.0892770588397979736 0.0402841344475746155
-0.0429151840507984161 0.0892876461148262024 0.0407682769000530243
-0.0425627157092094421 0.0892869830131530762 0.0411451980471611023
-0.0422102473676204681 0.089286215603351593 0.0415221191942691803
-0.0418577790260314941 0.0892855525016784668 0.0418990366160869598
-0.0415053106844425201 0.0892847925424575806 0.0422759577631950378
-0.0410844571888446808 0.0892727747559547424 0.0425456464290618896
-0.0408003777265548706 0.0892833620309829712 0.0430297926068305969
-0.0403795167803764343 0.0892713442444801331 0.0432994849979877472
-0.0399586595594882965 0.0892593339085578918 0.0435691773891448975
-0.0396061912178993225 0.0892586708068847656 0.0439460985362529755
-0.0391853339970111847 0.0892466530203819275 0.0442157909274101257
-0.0387644767761230469 0.0892346352338790894 0.044485483318567276
-0.0382752269506454468 0.0892112702131271362 0.044647950679063797
-0.037854369729757309 0.0891992524266242981 0.0449176467955112457
-0.0374335125088691711 0.08918723464012146 0.0451873354613780975
-0.0368758775293827057 0.0891526192426681519 0.0452425815165042877
-0.0363182388246059418 0.0891179963946342468 0.045297820121049881
-0.0358289889991283417 0.0890947282314300537 0.045460287481546402
-0.0354081317782402039 0.0890827178955078125 0.0457299798727035522
-0.034987274557352066 0.0890707001090049744 0.0459996722638607025
-0.034634806215763092 0.0890699326992034912 0.0463765934109687805
-0.0342823415994644165 0.089069269597530365 0.0467535108327865601
-0.0339298732578754425 0.0890685096383094788 0.0471304319798946381
-0.03357740119099617 0.0890678465366363525 0.0475073494017124176
-0.033224932849407196 0.0890670791268348694 0.0478842705488204956
-0.0328040793538093567 0.0890550613403320312 0.0481539592146873474
-0.0324516072869300842 0.089054405689239502 0.0485308803617954254
-0.0320990867912769318 0.0890536382794380188 0.0489077158272266388
-0.0316782295703887939 0.0890416204929351807 0.0491774082183837891
-0.0313257612287998199 0.0890409573912620544 0.0495543293654918671
-0.0309049040079116821 0.0890289396047592163 0.0498240217566490173
-0.0304840449243783951 0.0890169292688369751 0.0500937141478061676
-0.0300631895661354065 0.089004911482334137 0.0503634065389633179
-0.0296423304826021194 0.0889928936958312988 0.0506330989301204681
-0.0292214713990688324 0.0889808833599090576 0.0509027950465679169
-0.0287322252988815308 0.0889575108885765076 0.0510652624070644379
-0.0283113699406385422 0.0889454931020736694 0.0513349510729312897
-0.0278221741318702698 0.0889222323894500732 0.0514975041151046753
-0.0273329261690378189 0.0888988599181175232 0.0516599714756011963
-0.0267752893269062042 0.0888642370700836182 0.051715213805437088
-0.0262176543474197388 0.0888296216726303101 0.0517704524099826813
-0.0256600156426429749 0.088794998824596405 0.051825694739818573
-0.0251023788005113602 0.0887603834271430969 0.0518809370696544647
-0.0245447978377342224 0.0887257605791091919 0.0519362613558769226
-0.0239871591329574585 0.0886911451816558838 0.0519914999604225159
-0.0234295204281806946 0.0886565223336219788 0.0520467422902584076
-0.0228034928441047668 0.0886106416583061218 0.05199475958943367
-0.0221775230020284653 0.0885646715760231018 0.0519428551197052002
-0.0216882731765508652 0.0885414034128189087 0.0521053224802017212
-0.0212674140930175781 0.0885293930768966675 0.0523750148713588715
-0.0208465550094842911 0.0885173752903938293 0.0526447109878063202
-0.0205624792724847794 0.0885279625654220581 0.053128853440284729
-0.0202783476561307907 0.0885385498404502869 0.0536129176616668701
-0.0199258793145418167 0.0885377824306488037 0.0539898350834846497
-0.0196418017148971558 0.0885483846068382263 0.0544739775359630585
-0.0193577241152524948 0.0885589718818664551 0.0549581237137317657
-0.0190052539110183716 0.0885583013296127319 0.0553350448608398438
-0.0185843948274850845 0.0885462835431098938 0.055604737251996994
-0.0181635394692420959 0.0885342657566070557 0.0558744296431541443
-0.0175375118851661682 0.0884883031249046326 0.0558224432170391083
-0.0169798750430345535 0.0884536728262901306 0.0558776892721652985
-0.0164906252175569534 0.0884304121136665344 0.0560401566326618195
-0.0160697698593139648 0.0884183943271636963 0.0563098452985286713
-0.0155805768445134163 0.0883950218558311462 0.0564723983407020569
-0.0152280526235699654 0.08839435875415802 0.0568492338061332703
-0.0148071972653269768 0.0883823484182357788 0.0571189261972904205
-0.0144547298550605774 0.0883815810084342957 0.0574958473443984985
-0.0141022596508264542 0.0883809179067611694 0.0578727647662162781
-0.0138181792572140694 0.0883915051817893982 0.0583569109439849854
-0.0135341035202145576 0.088402092456817627 0.0588410533964633942
-0.0131132453680038452 0.0883900821208953857 0.0591107495129108429
-0.0126923862844705582 0.0883780643343925476 0.0593804419040679932
-0.012339920736849308 0.0883773043751716614 0.0597573593258857727
-0.0119874505326151848 0.0883766338229179382 0.0601342804729938507
-0.0118400976061820984 0.0884098336100578308 0.0608327910304069519
-0.0115560190752148628 0.0884204208850860596 0.0613169372081756592
-0.0116822253912687302 0.088498823344707489 0.0624443553388118744
-0.0118084298446774483 0.0885772258043289185 0.0635717734694480896
-0.0119346380233764648 0.088655523955821991 0.0646991878747940063
-0.0120408991351723671 0.0887230038642883301 0.0657949969172477722
-0.0120064429938793182 0.0887656956911087036 0.0666701123118400574
-0.0119719384238123894 0.0888082832098007202 0.0675451382994651794
-0.0120662320405244827 0.0888691022992134094 0.0686219781637191772
-0.0120317786931991577 0.088911786675453186 0.0694970935583114624
-0.0119328703731298447 0.0889453142881393433 0.070271223783493042
-0.0118340179324150085 0.0889788344502449036 0.0710454285144805908
-0.0115419058129191399 0.088985048234462738 0.0715168491005897522
-0.0113142523914575577 0.0890003368258476257 0.0720892548561096191
-0.0111509989947080612 0.0890246853232383728 0.0727625563740730286
-0.0109232868999242783 0.0890400782227516174 0.0733348801732063293
-0.0106312306597828865 0.0890462920069694519 0.07380637526512146
-0.0103391753509640694 0.0890524163842201233 0.0742778778076171875
-0.0101115191355347633 0.089067801833152771 0.0748502835631370544
-0.00975500699132680893 0.0890648514032363892 0.0752207934856414795
-0.00946295354515314102 0.0890710726380348206 0.075692296028137207
-0.00910649541765451431 0.0890681222081184387 0.0760628953576087952
-0.00875003822147846222 0.0890652760863304138 0.0764334872364997864
-0.00839358009397983551 0.089062325656414032 0.0768040865659713745
-0.00810152385383844376 0.0890685394406318665 0.0772755816578865051
-0.00774501543492078781 0.0890655964612960815 0.0776460990309715271
-0.00732415681704878807 0.0890535786747932434 0.0779157876968383789
-0.00696769962087273598 0.0890507325530052185 0.078286387026309967
-0.00661124195903539658 0.0890477821230888367 0.0786569863557815552
-0.00619038427248597145 0.0890357643365859985 0.078926675021648407
-0.00583392893895506859 0.0890328213572502136 0.0792972743511199951
-0.00547746988013386726 0.0890299752354621887 0.0796678662300109863
-0.00505661219358444214 0.0890179574489593506 0.0799375623464584351
-0.00470015686005353928 0.0890150070190429688 0.0803081616759300232
-0.00415049819275736809 0.088984757661819458 0.0803760439157485962
-0.00360083696432411671 0.0889546051621437073 0.0804439336061477661
-0.0031155790202319622 0.0889334231615066528 0.0806127190589904785
-0.0027591213583946228 0.0889305770397186279 0.0809833183884620667
-0.00240266439504921436 0.0889276266098022461 0.0813539177179336548
-0.00211060722358524799 0.0889338478446006775 0.0818254128098487854
-0.00175415212288498878 0.0889308974146842957 0.0821960121393203735
-0.0013976923655718565 0.0889280438423156738 0.0825666114687919617
-0.000976835261099040508 0.0889160335063934326 0.0828363001346588135
-0.000555977399926632643 0.0889040157198905945 0.0831059962511062622
-7.07211220287717879e-05 0.08888283371925354 0.0832747817039489746
0.000350136338965967298 0.0888708159327507019 0.0835444778203964233
0.000770994171034544706 0.0888587981462478638 0.0838141739368438721
0.00119185203220695257 0.0888467878103256226 0.0840838626027107239
0.00167711265385150909 0.0888257026672363281 0.0842526555061340332
0.00216236850246787071 0.0888045206665992737 0.0844214409589767456
0.00258322642184793949 0.0887925028800964355 0.0846911370754241943
0.00300408387556672096 0.0887804925441741943 0.0849608257412910461
0.00348934438079595566 0.088759399950504303 0.0851296186447143555
0.00391020206734538078 0.0887473896145820618 0.0853993073105812073
0.00433106021955609322 0.0887353718280792236 0.085669003427028656
0.00475191790610551834 0.0887233540415763855 0.0859386995434761047
0.00523717654868960381 0.088702276349067688 0.0861074849963188171
0.00565803423523902893 0.0886902585625648499 0.0863771811127662659
0.00607889192178845406 0.0886782482266426086 0.0866468772292137146
0.0065641496330499649 0.0886570587754249573 0.086815662682056427
0.00698500731959939003 0.0886450484395027161 0.0870853587985038757
0.00740586547181010246 0.0886330306529998779 0.0873550474643707275
0.00789107102900743484 0.0886119455099105835 0.087523922324180603
0.00831192918121814728 0.0885999277234077454 0.0877936109900474548
0.00873278733342885971 0.0885879099369049072 0.0880633071064949036
0.00915364455431699753 0.088575899600982666 0.0883330032229423523
0.00957450270652770996 0.0885638818144798279 0.0886026918888092041
0.00999536085873842239 0.0885518640279769897 0.0888723880052566528
0.0104806162416934967 0.0885306894779205322 0.0890411809086799622
0.0109658762812614441 0.0885096043348312378 0.0892099663615226746
0.0113867344334721565 0.0884975865483283997 0.0894796624779701233
0.0118719935417175293 0.0884765088558197021 0.0896484479308128357
0.0123572507873177528 0.0884553268551826477 0.089817240834236145
0.0128425098955631256 0.0884342342615127563 0.0899860262870788574
0.0133277671411633492 0.0884130522608757019 0.0901548191905021667
0.0138130281120538712 0.0883919745683670044 0.0903236046433448792
0.0142982322722673416 0.08837088942527771 0.0904924795031547546
0.0147834895178675652 0.0883496999740600586 0.090661272406578064
0.015333147719502449 0.0883194580674171448 0.090729154646396637
0.0158184096217155457 0.0882983729243278503 0.0908979475498199463
0.0163680668920278549 0.0882681235671043396 0.0909658297896385193
0.0168533250689506531 0.0882470384240150452 0.0911346226930618286
0.0173385832458734512 0.0882258564233779907 0.091303408145904541
0.017888188362121582 0.08819560706615448 0.0913713797926902771
0.0184378493577241898 0.0881654620170593262 0.091439269483089447
0.0190519075840711594 0.0881260335445404053 0.0914062485098838806
0.0196015685796737671 0.0880958884954452515 0.0914741382002830505
0.0203443765640258789 0.0880383402109146118 0.0912393927574157715
0.0210872367024421692 0.0879806801676750183 0.0910045653581619263
0.0216368436813354492 0.0879505351185798645 0.0910725370049476624
0.0221865009516477585 0.0879202857613563538 0.0911404266953468323
0.0227361638098955154 0.087890036404132843 0.0912083089351654053
0.0234145671129226685 0.0878415480256080627 0.0910744741559028625
0.0240286290645599365 0.0878022313117980957 0.0910414531826972961
0.0249002370983362198 0.0877264514565467834 0.0906049087643623352
0.0254498980939388275 0.0876962989568710327 0.0906727910041809082
0.025999557226896286 0.087666042149066925 0.0907406806945800781
0.0264204144477844238 0.0876540318131446838 0.0910103693604469299
0.0268412735313177109 0.0876420140266418457 0.0912800654768943787
0.0272621307522058487 0.0876299962401390076 0.0915497541427612305
0.0277473889291286469 0.0876088142395019531 0.0917185470461845398
0.0281682461500167847 0.087596796452999115 0.0919882357120513916
0.0285891052335500717 0.0875847786664962769 0.0922579318284988403
0.0290743634104728699 0.0875637009739875793 0.0924267247319221497
0.029559621587395668 0.0875425189733505249 0.0925955101847648621
0.0301092267036437988 0.0875123664736747742 0.0926634818315505981
0.0306588858366012573 0.0874821245670318604 0.0927313715219497681
0.0311441440135240555 0.087460935115814209 0.0929001569747924805
0.0316977910697460175 0.0874284952878952026 0.0929617211222648621
0.0323237664997577667 0.0873826295137405396 0.0929098203778266907
0.0328814014792442322 0.0873480066657066345 0.0929650589823722839
0.0335758216679096222 0.0872907862067222595 0.0928058475255966187
0.0342018455266952515 0.0872449055314064026 0.0927538648247718811
0.0348962098360061646 0.0871876850724220276 0.092594735324382782
0.0357273519039154053 0.0871078595519065857 0.0922211557626724243
0.0363533757627010345 0.0870618820190429688 0.0921691730618476868
0.0371161848306655884 0.0869934111833572388 0.0919027328491210938
0.037810545414686203 0.0869361758232116699 0.0917436107993125916
0.0383681841194629669 0.0869015604257583618 0.0917988494038581848
0.0389258190989494324 0.0868669375777244568 0.091854095458984375
0.039415065199136734 0.0868435725569725037 0.092016562819480896
0.0399043150246143341 0.0868203043937683105 0.0921790227293968201
0.0403935089707374573 0.0867969319224357605 0.0923415794968605042
0.0408143661916255951 0.0867849215865135193 0.092611268162727356
0.0413720011711120605 0.0867502987384796143 0.0926665067672729492
0.0419296398758888245 0.0867156758904457092 0.0927217528223991394
0.042624056339263916 0.0866584554314613342 0.0925625413656234741
0.0433184206485748291 0.0866012349724769592 0.0924034193158149719
0.044081222265958786 0.0865327492356300354 0.0921369791030883789
0.0449123680591583252 0.0864529237151145935 0.0917633995413780212
0.0456751175224781036 0.0863843485713005066 0.0914970487356185913
0.0465063117444515228 0.0863045230507850647 0.0911233797669410706
0.0473374538123607635 0.0862246900796890259 0.0907498002052307129
0.0482369884848594666 0.0861336067318916321 0.0902689993381500244
0.0490681864321231842 0.0860537812113761902 0.0898953378200531006
0.0497625470161437988 0.0859965607523918152 0.0897362083196640015
0.0505253523588180542 0.0859280750155448914 0.0894697681069374084
0.0512881055474281311 0.0858594998717308044 0.0892034173011779785
0.0520509146153926849 0.0857910290360450745 0.0889369845390319824
0.0528820529580116272 0.0857111886143684387 0.0885634049773216248
0.0537131950259208679 0.0856313630938529968 0.0881898179650306702
0.0546127781271934509 0.085540182888507843 0.0877089351415634155
0.0555806979537010193 0.0854377523064613342 0.0871209055185317993
0.0568905174732208252 0.0852788537740707397 0.0859968215227127075
0.0574481561779975891 0.0852442383766174316 0.0860520675778388977
0.0582792982459068298 0.0851643979549407959 0.08567848801612854
0.0593839958310127258 0.0850393697619438171 0.0848760008811950684
0.0604203082621097565 0.0849256813526153564 0.0841807499527931213
0.0614566169679164886 0.0848118960857391357 0.0834854915738105774
0.0625613182783126831 0.0846868604421615601 0.0826830044388771057
0.0706517323851585388 0.0834648832678794861 0.0718573778867721558
-0.0481324605643749237 0.088428206741809845 0.00947493873536586761
-0.048190288245677948 0.0884947553277015686 0.0104951281100511551
-0.0487268082797527313 0.0886397659778594971 0.0122658144682645798
-0.0488529764115810394 0.0887175723910331726 0.0133931459859013557
-0.0487740747630596161 0.0887617170810699463 0.0141989681869745255
-0.0493105426430702209 0.0889067351818084717 0.0159695688635110855
-0.0490948595106601715 0.0889283791184425354 0.0165609400719404221
-0.0490159094333648682 0.0889725238084793091 0.0173666756600141525
-0.0493472516536712646 0.0890839770436286926 0.0188156850636005402
-0.0492682978510856628 0.0891280248761177063 0.0196214225143194199
-0.0493261292576789856 0.0891945809125900269 0.0206416118890047073
-0.0493839569389820099 0.0892611220479011536 0.0216618012636899948
-0.0493050068616867065 0.0893051698803901672 0.0224675405770540237
-0.0492260493338108063 0.0893493145704269409 0.0232732780277729034
-0.0491471588611602783 0.0893933624029159546 0.0240790974348783493
-0.0491365939378738403 0.0894487649202346802 0.0249920599162578583
-0.049057643860578537 0.0894928053021430969 0.0257978010922670364
-0.0489786863327026367 0.0895369499921798706 0.0266035385429859161
-0.0488997325301170349 0.0895809903740882874 0.0274092759937047958
-0.0487523898482322693 0.0896138846874237061 0.0281077902764081955
-0.0486050955951213837 0.0896467790007591248 0.0288063846528530121
-0.048457752913236618 0.0896795764565467834 0.0295048952102661133
-0.0483104661107063293 0.0897124707698822021 0.0302034914493560791
-0.0480263382196426392 0.089722953736782074 0.0306875519454479218
-0.047879047691822052 0.0897557511925697327 0.0313861481845378876
-0.0475949160754680634 0.0897662341594696045 0.0318702086806297302
-0.0473792329430580139 0.0897878780961036682 0.0324615798890590668
-0.0470951050519943237 0.08979826420545578 0.0329456403851509094
-0.046811029314994812 0.0898087546229362488 0.0334297865629196167
-0.046595349907875061 0.0898303985595703125 0.0340211540460586548
-0.0463112220168113708 0.0898407846689224243 0.0345052145421504974
-0.0460271462798118591 0.0898512750864028931 0.0349893607199192047
-0.0457430705428123474 0.0898616686463356018 0.0354735031723976135
-0.0453906059265136719 0.0898609012365341187 0.0358504243195056915
-0.0451064780354499817 0.0898712873458862305 0.0363344848155975342
-0.04482240229845047 0.0898816809058189392 0.0368186309933662415
-0.0445383302867412567 0.089892163872718811 0.0373027697205543518
-0.0443225950002670288 0.0899138078093528748 0.0378940589725971222
-0.0441068597137928009 0.0899354442954063416 0.0384853444993495941
-0.0438911765813827515 0.0899570882320404053 0.0390767157077789307
-0.0435387082397937775 0.089956328272819519 0.0394536331295967102
-0.043323025107383728 0.0899779722094535828 0.0400450080633163452
-0.0430388972163200378 0.0899883583188056946 0.0405290648341178894
-0.0426864288747310638 0.0899875909090042114 0.0409059859812259674
-0.042402360588312149 0.0899979844689369202 0.0413901284337043762
-0.0420498959720134735 0.089997217059135437 0.0417670458555221558
-0.0416973717510700226 0.0899964496493339539 0.0421438813209533691
-0.041344907134771347 0.0899956896901130676 0.0425208024680614471
-0.040992438793182373 0.0899948328733444214 0.0428977198898792267
-0.040639970451593399 0.0899940654635429382 0.0432746410369873047
-0.0402191132307052612 0.0899820476770401001 0.043544333428144455
-0.0398666486144065857 0.0899812802672386169 0.0439212508499622345
-0.0394457913935184479 0.0899692699313163757 0.0441909432411193848
-0.0390249341726303101 0.0899572521448135376 0.044460635632276535
-0.0386040769517421722 0.0899452343583106995 0.0447303317487239838
-0.0381148271262645721 0.0899219736456871033 0.0448927953839302063
-0.0376939661800861359 0.0899099558591842651 0.045162491500377655
-0.0371363274753093719 0.0898755341768264771 0.0452177338302135468
-0.0365103520452976227 0.089829765260219574 0.0451658330857753754
-0.0360210984945297241 0.0898065939545631409 0.0453283004462718964
-0.0355318523943424225 0.0897833257913589478 0.0454907640814781189
-0.0351793840527534485 0.0897825658321380615 0.0458676852285861969
-0.0347585231065750122 0.0897705480456352234 0.0461373776197433472
-0.0344060584902763367 0.0897696837782859802 0.0465142987668514252
-0.0340535975992679596 0.0897689163684844971 0.0468912161886692047
-0.0337010733783245087 0.0897681564092636108 0.0472680516541004181
-0.0332802161574363708 0.0897561386227607727 0.0475377440452575684
-0.0329277478158473969 0.0897553786635398865 0.0479146651923656464
-0.0325068943202495575 0.0897433608770370483 0.0481843575835227966
-0.0322228185832500458 0.0897537469863891602 0.0486685000360012054
-0.0318019576370716095 0.0897417366504669189 0.0489381924271583557
-0.0313811041414737701 0.0897297188639640808 0.049207884818315506
-0.0310286357998847961 0.0897289514541625977 0.049584805965423584
-0.0306077785789966583 0.0897169411182403564 0.0498544983565807343
-0.0301869194954633713 0.0897049233317375183 0.0501241907477378845
-0.0297660641372203827 0.0896929055452346802 0.0503938831388950348
-0.0293452050536870956 0.089680887758731842 0.0506635792553424835
-0.0288559552282094955 0.0896576270461082458 0.0508260466158390045
-0.0284350961446762085 0.0896456092596054077 0.0510957390069961548
-0.0279458500444889069 0.0896223410964012146 0.0512582026422023773
-0.0274565983563661575 0.0895991772413253784 0.0514206737279891968
-0.0269673485308885574 0.0895759016275405884 0.0515831410884857178
-0.0264097657054662704 0.0895413905382156372 0.0516384653747081757
-0.0258521214127540588 0.0895069614052772522 0.0516937077045440674
-0.0252944789826869965 0.0894725397229194641 0.0517489500343799591
-0.0248052831739187241 0.0894492790102958679 0.0519115030765533447
-0.0241792518645524979 0.0894035995006561279 0.0518595166504383087
-0.0236216112971305847 0.0893690884113311768 0.051914755254983902
-0.0229272376745939255 0.0893122553825378418 0.0517556332051753998
-0.0223695971071720123 0.0892777368426322937 0.051810871809720993
-0.0218803472816944122 0.0892545729875564575 0.051973339170217514
-0.0214594881981611252 0.0892425552010536194 0.0522430315613746643
-0.0211070235818624496 0.0892416909337043762 0.0526199527084827423
-0.0206861682236194611 0.0892296731472015381 0.0528896450996398926
-0.0203336998820304871 0.0892289131879806519 0.0532665625214576721
-0.0200496278703212738 0.0892392992973327637 0.0537507086992263794
-0.0196971055120229721 0.0892385318875312805 0.0541275441646575928
-0.0194130335003137589 0.0892489254474639893 0.0546116866171360016
-0.0191289577633142471 0.089259415864944458 0.0550958327949047089
-0.0187080986797809601 0.0892473980784416199 0.0553655251860618591
-0.018287239596247673 0.0892353802919387817 0.0556352213025093079
-0.0177296027541160583 0.0892008692026138306 0.0556904599070549011
-0.017171960324048996 0.0891664400696754456 0.0557457022368907928
-0.0167511012405157089 0.0891544222831726074 0.0560153983533382416
-0.0163302458822727203 0.0891424119472503662 0.0562850870192050934
-0.0159093867987394333 0.0891303941607475281 0.0565547831356525421
-0.0154885286465287209 0.0891183763742446899 0.0568244755268096924
-0.0151360612362623215 0.0891176164150238037 0.0572013966739177704
-0.0148519892245531082 0.0891280025243759155 0.0576855354011058807
-0.0145679134875535965 0.0891385003924369812 0.058169681578874588
-0.014215448871254921 0.089137636125087738 0.058546602725982666
-0.0138629814609885216 0.0891368687152862549 0.058923523873090744
-0.013442126102745533 0.0891248509287834167 0.0591932125389575958
-0.0129528753459453583 0.0891015902161598206 0.0593556798994541168
-0.0125320190563797951 0.0890895724296569824 0.0596253722906112671
-0.012111159972846508 0.0890775546431541443 0.0598950684070587158
-0.0118270311504602432 0.0890880376100540161 0.0603791289031505585
-0.0116113470867276192 0.0891096815466880798 0.0609704963862895966
-0.0114640034735202789 0.0891425758600234985 0.0616690106689929962
-0.0117270108312368393 0.0892426818609237671 0.06301087886095047
-0.0117847872897982597 0.0893092304468154907 0.0640309825539588928
-0.0117058856412768364 0.0893533751368522644 0.0648368000984191895
-0.0117477094754576683 0.0894110873341560364 0.0658316165208816528
-0.0117776170372962952 0.0894623398780822754 0.0668075531721115112
-0.0118075264617800713 0.0895134955644607544 0.0677834823727607727
-0.0117730852216482162 0.0895556807518005371 0.0686585977673530579
-0.0117385899648070335 0.0895978733897209167 0.0695336237549781799
-0.0116396928206086159 0.0896309912204742432 0.0703077539801597595
-0.0114764468744397163 0.0896550491452217102 0.0709810554981231689
-0.0112487440928816795 0.089670129120349884 0.0715533792972564697
-0.0110210943967103958 0.0896852165460586548 0.0721257850527763367
-0.0107934437692165375 0.0897003039717674255 0.0726981833577156067
-0.0105657400563359261 0.0897153913974761963 0.0732704997062683105
-0.0103380912914872169 0.089730478823184967 0.0738429054617881775
-0.0100460387766361237 0.0897364914417266846 0.074314408004283905
-0.0097539341077208519 0.089742511510848999 0.0747858211398124695
-0.00939747970551252365 0.0897395610809326172 0.0751564204692840576
-0.00916982721537351608 0.0897546559572219849 0.0757288187742233276
-0.00881337560713291168 0.089751608669757843 0.0760994181036949158
-0.00845692027360200882 0.0897486507892608643 0.0764700174331665039
-0.00810040906071662903 0.0897457078099250793 0.076840527355670929
-0.00780835701152682304 0.0897517204284667969 0.0773120224475860596
-0.00738749979063868523 0.0897397100925445557 0.0775817185640335083
-0.00703104399144649506 0.0897367671132087708 0.0779523178935050964
-0.00673899287357926369 0.0897427797317504883 0.0784238129854202271
-0.00631813518702983856 0.0897307619452476501 0.0786935091018676758
-0.00596168264746665955 0.0897277146577835083 0.0790641084313392639
-0.00560517143458127975 0.0897247716784477234 0.079434618353843689
-0.00524871610105037689 0.0897218137979507446 0.0798052102327346802
-0.00482785841450095177 0.0897098034620285034 0.0800749063491821289
-0.00434259790927171707 0.089688718318939209 0.0802436918020248413
-0.0037929881364107132 0.0896586701273918152 0.0803116634488105774
-0.00330772949382662773 0.0896375924348831177 0.0804804563522338867
-0.00288687250576913357 0.0896255746483802795 0.0807501524686813354
-0.00253041530959308147 0.0896226242184638977 0.0811207443475723267
-0.00223830924369394779 0.0896286442875862122 0.0815921574831008911
-0.00188185425940901041 0.0896256938576698303 0.0819627568125724792
-0.00152540171984583139 0.0896226391196250916 0.0823333561420440674
-0.00110454391688108444 0.0896106287837028503 0.0826030448079109192
-0.000748086662497371435 0.0896076858043670654 0.0829736441373825073
-0.000262828223640099168 0.0895865932106971741 0.0831424370408058167
0.000158029622980393469 0.0895745828747749329 0.0834121257066726685
0.000578887062147259712 0.0895625650882720947 0.0836818218231201172
0.00106415024492889643 0.0895415842533111572 0.0838506072759628296
0.00148500816430896521 0.0895295664668083191 0.0841203033924102783
0.00197026878595352173 0.0895084887742996216 0.0842890888452529907
0.00245547294616699219 0.0894874036312103271 0.0844579637050628662
0.00287633039988577366 0.089475385844707489 0.0847276598215103149
0.00329718855209648609 0.0894633680582046509 0.0849973559379577637
0.00378245161846280098 0.0894423872232437134 0.0851661413908004761
0.0042033093050122261 0.0894303694367408752 0.0854358375072479248
0.00468856794759631157 0.0894092917442321777 0.0856046229600906372
0.00510942563414573669 0.0893972739577293396 0.0858743190765380859
0.00553028332069516182 0.0893852561712265015 0.0861440151929855347
0.00601554661989212036 0.089364275336265564 0.0863128006458282471
0.00643640430644154549 0.0893522575497627258 0.0865824967622756958
0.00692166481167078018 0.0893311724066734314 0.0867512822151184082
0.00734252249822020531 0.0893191546201705933 0.0870209783315658569
0.00776338018476963043 0.0893071442842483521 0.0872906669974327087
0.0082486392930150032 0.0892860665917396545 0.0874594599008560181
0.00866949651390314102 0.0892740488052368164 0.0877291485667228699
0.00909035466611385345 0.0892620310187339783 0.0879988446831703186
0.00957561749964952469 0.0892410501837730408 0.088167630136013031
0.00999647565186023712 0.0892290323972702026 0.0884373262524604797
0.0104173338040709496 0.0892170146107673645 0.0887070223689079285
0.010966939851641655 0.0891868695616722107 0.0887749940156936646
0.0113877980038523674 0.0891748517751693726 0.0890446826815605164
0.0118730608373880386 0.0891538709402084351 0.0892134755849838257
0.0122939189895987511 0.0891418531537055969 0.0894831642508506775
0.0127791771665215492 0.0891207680106163025 0.0896519571542739868
0.0132644400000572205 0.089099787175655365 0.0898207426071166992
0.0137496991083025932 0.0890786945819854736 0.0899895355105400085
0.0142349591478705406 0.0890576168894767761 0.0901583284139633179
0.0147201679646968842 0.0890366360545158386 0.0903271958231925964
0.0152054270729422569 0.0890155509114265442 0.0904959887266159058
0.0156906880438327789 0.0889944657683372498 0.0906647816300392151
0.0162403509020805359 0.088964417576789856 0.0907326638698577881
0.0166612099856138229 0.0889523997902870178 0.0910023599863052368
0.0171464700251817703 0.0889314189553260803 0.0911711528897285461
0.0176960788667201996 0.0889012664556503296 0.0912391170859336853
0.0182457417249679565 0.0888712182641029358 0.0913070067763328552
0.0187954064458608627 0.088841170072555542 0.0913748890161514282
0.0194094739854335785 0.088802047073841095 0.0913418754935264587
0.0200878866016864777 0.0887538716197013855 0.091208040714263916
0.020766356959939003 0.0887057855725288391 0.0910741165280342102
0.0213803686201572418 0.088666670024394989 0.0910411849617958069
0.021930033341050148 0.0886366143822669983 0.0911090746521949768
0.0224152933806180954 0.0886155366897583008 0.0912778601050376892
0.0230937078595161438 0.0885674506425857544 0.0911440253257751465
0.0237077753990888596 0.0885283350944519043 0.091111011803150177
0.0245149955153465271 0.0884621143341064453 0.0907753631472587585
0.0253222156316041946 0.0883958935737609863 0.090439721941947937
0.0258718784898519516 0.0883658379316329956 0.0905076116323471069
0.0264215432107448578 0.0883357971906661987 0.0905754938721656799
0.0268424004316329956 0.0883237794041633606 0.0908451899886131287
0.0271988566964864731 0.0883207321166992188 0.0912157818675041199
0.0276841167360544205 0.0882997438311576843 0.0913845747709274292
0.0280405711382627487 0.0882966965436935425 0.0917551666498184204
0.0284614283591508865 0.0882846787571907043 0.0920248627662658691
0.0289466902613639832 0.0882636979222297668 0.0921936556696891785
0.0294319503009319305 0.0882426127791404724 0.0923624411225318909
0.0299172103404998779 0.0882215350866317749 0.0925312340259552002
0.0304668210446834564 0.0881914794445037842 0.0925992056727409363
0.0309520810842514038 0.0881704986095428467 0.0927679911255836487
0.0315741263329982758 0.0881270095705986023 0.0927223339676856995
0.0321317128837108612 0.0880924910306930542 0.0927776619791984558
0.0326893553137779236 0.088058076798915863 0.0928329005837440491
0.0333837270736694336 0.0880011469125747681 0.09267377108335495
0.0340097583830356598 0.087955474853515625 0.0926217883825302124
0.0346357375383377075 0.087909795343875885 0.092569887638092041
0.0353985540568828583 0.087841622531414032 0.0923034548759460449
0.0361613184213638306 0.087773546576499939 0.092037104070186615
0.0368556864559650421 0.087716616690158844 0.0918779745697975159
0.0374816656112670898 0.0876709520816802979 0.0918260738253593445
0.0381077006459236145 0.0876252725720405579 0.0917740911245346069
0.0386653430759906769 0.0875907614827156067 0.0918293297290802002
0.0391545891761779785 0.0875675901770591736 0.0919918045401573181
0.0396438390016555786 0.0875443220138549805 0.0921542719006538391
0.0401330329477787018 0.0875210538506507874 0.0923168212175369263
0.0406222864985466003 0.0874978825449943542 0.0924792885780334473
0.041111532598733902 0.0874746218323707581 0.0926417484879493713
0.0416691787540912628 0.08744020015001297 0.0926969945430755615
0.0422267615795135498 0.0874056816101074219 0.0927523225545883179
0.0429211892187595367 0.0873487517237663269 0.0925931110978126526
0.0436839498579502106 0.0872806757688522339 0.0923267602920532227
0.0445151068270206451 0.0872013494372367859 0.091953180730342865
0.045277867466211319 0.0871331691741943359 0.0916868299245834351
0.0460406318306922913 0.0870650932192802429 0.0914204791188240051
0.0468717813491821289 0.086985662579536438 0.0910468995571136475
0.0477713309228420258 0.086895182728767395 0.090566098690032959
0.0486024841666221619 0.086815759539604187 0.0901925191283226013
0.0495020300149917603 0.0867252722382545471 0.0897117182612419128
0.0501280650496482849 0.086679503321647644 0.0896597281098365784
0.0508908294141292572 0.086611427366733551 0.0893933847546577454
0.0517903752624988556 0.0865208357572555542 0.08891257643699646
0.0525531359016895294 0.0864527598023414612 0.08864622563123703
0.0534526817500591278 0.0863621830940246582 0.0881654247641563416
0.0543521754443645477 0.0862715989351272583 0.0876847058534622192
0.0552517212927341461 0.0861810222268104553 0.0872039049863815308
0.0565615631639957428 0.0860231220722198486 0.0860798284411430359
0.0572559349238872528 0.0859661996364593506 0.0859206989407539368
0.058018755167722702 0.0858981311321258545 0.0856542661786079407
0.0591234192252159119 0.0857738927006721497 0.0848518684506416321
0.0600913576781749725 0.0856720581650733948 0.0842638388276100159
0.0611276328563690186 0.0855590701103210449 0.083568669855594635
0.0621639639139175415 0.0854459851980209351 0.082873418927192688
0.070459417998790741 0.0841987580060958862 0.0717266872525215149
-0.0473095178604125977 0.0889329016208648682 0.00682275043800473213
-0.0483247153460979462 0.0891548767685890198 0.00934384390711784363
-0.0484508983790874481 0.0892319828271865845 0.0104711735621094704
-0.0489873923361301422 0.0893759950995445251 0.0122417714446783066
-0.0490451827645301819 0.0894419401884078979 0.0132618742063641548
-0.0491030327975749969 0.0895078927278518677 0.0142820579931139946
-0.0494343452155590057 0.0896184518933296204 0.015730980783700943
-0.0493554547429084778 0.0896621942520141602 0.0165368020534515381
-0.0491397269070148468 0.0896835401654243469 0.01712808758020401
-0.0492659099400043488 0.0897607430815696716 0.0182554163038730621
-0.0494604893028736115 0.0898489952087402344 0.0194899719208478928
-0.0493131540715694427 0.0898814871907234192 0.020188482478260994
-0.0493710003793239594 0.0899475365877151489 0.021208668127655983
-0.0493603982031345367 0.0900023281574249268 0.0221215449273586273
-0.049213062971830368 0.0900349244475364685 0.0228200573474168777
-0.0492709055542945862 0.0901008769869804382 0.0238402467221021652
-0.049123566597700119 0.09013347327709198 0.0245387554168701172
-0.0490446239709854126 0.0901771187782287598 0.0253444910049438477
-0.0489656813442707062 0.0902208611369132996 0.0261502303183078766
-0.048955138772726059 0.0902756527066230774 0.0270631890743970871
-0.0488077998161315918 0.0903082489967346191 0.0277616996318101883
-0.0487288609147071838 0.0903518944978713989 0.028567437082529068
-0.0485815219581127167 0.0903844907879829407 0.0292659476399421692
-0.0484341830015182495 0.0904170796275138855 0.0299644600600004196
-0.0481500625610351562 0.0904272720217704773 0.0304485224187374115
-0.0480027757585048676 0.0904598608613014221 0.0311471167951822281
-0.0477186515927314758 0.0904701501131057739 0.03163117915391922
-0.0475029274821281433 0.0904914960265159607 0.032222457230091095
-0.0472872518002986908 0.0905129313468933105 0.0328138284385204315
-0.0470031797885894775 0.0905232205986976624 0.0332979746162891388
-0.0467874482274055481 0.0905446633696556091 0.0338892601430416107
-0.0465033240616321564 0.0905549526214599609 0.0343733206391334534
-0.0462192557752132416 0.0905651375651359558 0.0348574668169021606
-0.0459351278841495514 0.0905754268169403076 0.0353415273129940033
-0.0455826669931411743 0.0905745700001716614 0.0357184372842311859
-0.0452302023768424988 0.0905737057328224182 0.0360953584313392639
-0.0448777377605438232 0.090572841465473175 0.0364722795784473419
-0.0445936694741249084 0.0905831232666969299 0.0369564220309257507
-0.044377937912940979 0.0906044691801071167 0.0375477075576782227
-0.0441622063517570496 0.0906259045004844666 0.0381389930844306946
-0.0438781380653381348 0.0906361937522888184 0.0386231392621994019
-0.0436624102294445038 0.0906576365232467651 0.0392144210636615753
-0.043378341943025589 0.09066782146692276 0.0396985672414302826
-0.0430942177772521973 0.0906781107187271118 0.0401826277375221252
-0.042810145765542984 0.0906884074211120605 0.0406667701900005341
-0.0425260178744792938 0.0906986966729164124 0.0411508306860923767
-0.0421735532581806183 0.0906978324055671692 0.0415277518332004547
-0.0418210886418819427 0.090696968138217926 0.0419046692550182343
-0.0414686240255832672 0.0906961038708686829 0.0422815904021263123
-0.0411845073103904724 0.0907062888145446777 0.0427656471729278564
-0.0408320426940917969 0.0907054319977760315 0.043142564594745636
-0.0404795780777931213 0.0907045677304267883 0.0435194820165634155
-0.0400587171316146851 0.0906925499439239502 0.0437891744077205658
-0.0397062003612518311 0.090691685676574707 0.0441660098731517792
-0.0392853431403636932 0.0906796678900718689 0.0444357022643089294
-0.0387961454689502716 0.0906565040349960327 0.0445982553064823151
-0.0383752882480621338 0.0906444862484931946 0.0448679476976394653
-0.0378176420927047729 0.0906101688742637634 0.0449231937527656555
-0.0373283922672271729 0.0905869975686073303 0.0450856573879718781
-0.0367707982659339905 0.0905527770519256592 0.0451409853994846344
-0.0362815447151660919 0.090529613196849823 0.0453034527599811554
-0.0358606874942779541 0.0905175954103469849 0.0455731451511383057
